VERSION .7
FIELDS x y z velocity SNR
SIZE 4 4 4 4 4
TYPE F F F F F
COUNT 1 1 1 1 1
WIDTH 379
HEIGHT 1
VIEWPOINT 0 0 0 1 0 0 0
POINTS 379
DATA ascii
-1.15603927872955 5.19576380954983 0.372492813335372 -0.773573536458636 7.44351751640409
0.305195251559623 5.61262012914247 -0.569694890983509 -0.773573536458636 42.2457685424334
-4.32106264511819 4.24194298865646 -1.65552361482387 -0.928288243750363 8.86700475516642
-1.38941136652367 6.01845096292478 1.11991303355733 -0.928288243750363 8.86700475516642
-7.09287813605937 3.59418939755832 -1.83568353761353 -1.701861780209 19.1665893108657
-7.25916959688513 3.83379629650493 -2.1034888282468 -1.54714707291727 16.4442098730068
-8.60152385493576 4.54273589550815 -0.226417200262678 -3.86786768229318 6.90356475566822
-8.29971600037661 5.07320178550584 0.226417200262678 -3.86786768229318 6.90356475566822
6.69007294987769 6.42285825844829 2.9434236034148 -3.86786768229318 6.90356475566822
8.66259968289403 4.38961777409694 -0.603779200700473 -3.86786768229318 6.90356475566822
-8.60359477946407 4.54382961603376 -0.0754724000875587 -3.71315297500145 13.8616751811914
-8.28170995896592 5.06219559186856 0.679251600788031 -3.71315297500145 13.8616751811914
-7.82998032484051 5.73619666393851 0.679251600788031 -3.71315297500145 13.8616751811914
8.6279992263508 4.37208461031309 -1.05661360122583 -3.71315297500145 13.8616751811914
-8.56332184293462 5.23433086884729 0.389534968193853 -3.86786768229318 47.9015646988629
-4.67441961832623 8.88989535109956 -0 -3.86786768229318 47.9015646988629
-4.35950930185762 9.04009841081754 -0.389534968193853 -3.86786768229318 47.9015646988629
9.0347641622868 4.38164913664163 0.233720980916312 -3.86786768229318 47.9015646988629
9.34630775408979 3.67046917854043 0.233720980916312 -3.86786768229318 47.9015646988629
-8.54886189312612 5.22549222386432 0.701162942748936 -3.71315297500145 86.9281759453579
-4.67427899733192 8.88962791556196 -0.0779069936387703 -3.71315297500145 86.9281759453579
9.03041212527651 4.37953850056234 0.389534968193853 -3.71315297500145 86.9281759453579
9.34433834907019 3.66969575649884 0.311627974555083 -3.71315297500145 86.9281759453579
-8.53851836498682 5.21916974181526 0.856976930026476 -3.55843826770973 9.18296791604636
-8.02495872745384 5.71725793175474 1.94767484096926 -3.55843826770973 9.18296791604636
-4.67385710896406 8.88882556067164 -0.155813987277541 -3.55843826770973 9.18296791604636
8.95822612551444 4.539421197379 0.155813987277541 -3.55843826770973 9.18296791604636
9.34433834907019 3.66969575649884 0.311627974555083 -3.55843826770973 9.18296791604636
-4.63958230496675 9.21025355902625 -0.964099046279786 -4.02258238958491 10.9358732122715
-4.81991514361918 9.16660135944263 -0.160683174379964 -3.86786768229318 170.607748944801
-4.5745083293413 9.2803816386602 -0.482049523139893 -3.86786768229318 170.607748944801
-4.81991514361918 9.16660135944263 -0.160683174379964 -3.71315297500145 311.54326611037
-4.57726573817735 9.28597564013315 -0.321366348759929 -3.71315297500145 311.54326611037
-4.09729768359877 9.51260629262548 0.0803415871899819 -3.55843826770973 31.6659902092648
-4.01599161308546 9.54451151107752 -0.241024761569947 -3.403723560418 16.1519064307854
-3.69471228403862 9.67341665388389 -0.241024761569947 -3.403723560418 16.1519064307854
-3.61145394421682 9.69582437048007 -0.482049523139893 -3.09429414583454 17.8685434711295
-3.61265140248804 9.69903923775184 -0.401707935949911 -2.93957943854282 16.7477720741491
-3.52981518185287 9.72152779032888 -0.562391110329875 -2.78486473125109 8.54317634673372
-4.71696469464219 9.56938525209094 0.248328542223582 -4.02258238958491 50.4740136150296
-4.29139320812249 9.7356721299451 -0.827761807411938 -4.02258238958491 50.4740136150296
-5.04387574431359 9.39133676931633 -0.496657084447162 -3.86786768229318 98.6620132803444
-4.70673134911319 9.54862469267949 -0.744985626670744 -3.86786768229318 98.6620132803444
-4.96283424988256 9.43840748770996 -0.413880903705969 -3.71315297500145 171.183778792949
-4.71597076054636 9.56736884134931 -0.331104722964775 -3.71315297500145 171.183778792949
-4.30384342117107 9.76391731427348 -0.165552361482387 -3.71315297500145 171.183778792949
-3.72447988370573 9.99926992883972 -0.165552361482387 -2.93957943854282 20.3479416411135
-3.6332663045786 10.0064443972066 -0.744985626670744 -2.78486473125109 12.1459568174267
-8.94470859278124 6.37251952142299 0.255632322877217 -4.64144121875182 5.52988081280519
-4.09011716603545 10.1957396158049 -0 -4.64144121875182 5.52988081280519
-1.50467976139759 10.6714598826092 -2.13026935731013 -4.64144121875182 5.52988081280519
-8.14251856456386 6.62546988120587 3.2380094231114 -4.48672651146009 6.17743720461192
-1.52917291918392 10.8451697692049 0.852107742924053 -4.48672651146009 6.17743720461192
-4.50515307151959 9.98987635493416 -0.766896968631648 -4.02258238958491 26.8784951153417
-4.29229651277808 9.73772141266842 2.72674477735697 -3.86786768229318 23.4852002805673
-4.22645363138255 9.81246482780981 2.55632322877216 -3.71315297500145 19.2515772710084
-4.94163017249846 9.80986302041074 -0.17042154858481 -3.403723560418 21.308025051544
-5.36569428638015 9.57994340032396 -0.340843097169622 -3.24900885312627 33.2758173409661
-7.16541633681619 7.67165356628679 3.2380094231114 -2.93957943854282 12.2697245513482
-3.74945079155812 10.0663103897311 -2.30069090589494 -2.93957943854282 12.2697245513482
-3.92101244457676 10.2659108925241 -2.62936103530851 -4.95087063333527 6.52506009156366
-2.89221012959913 10.9226481840948 0.0876453678436166 -4.95087063333527 6.52506009156366
-2.5355147205749 10.9829755097905 -0.788808310592553 -4.95087063333527 6.52506009156366
-4.38108175972959 10.4121943757209 0.262936103530851 -4.79615592604354 8.99272187175533
-4.46655082489431 10.3698932233555 0.438226839218085 -4.64144121875182 34.5155514286254
-4.46655082489431 10.3698932233555 0.438226839218085 -4.48672651146009 44.5119893200228
-4.55742202239863 10.339198580984 -0.0876453678436166 -4.33201180416836 8.79327445384207
-4.02974591303652 10.5505945332983 -0.350581471374468 -4.33201180416836 8.79327445384207
-4.53777328887031 10.2946224682572 -1.0517444141234 -4.17729709687663 5.46264866964585
-4.90814059924254 10.1777679456665 -0 -3.86786768229318 7.64959720225888
-4.99578596708616 10.1350346357985 -0 -3.71315297500145 8.78144500176621
-5.08343133492978 10.0913591929345 -0 -3.55843826770973 5.40140018067232
-5.51899983741958 9.85365606890465 -0.350581471374468 -3.24900885312627 10.4350803783594
-5.43139666539705 9.90221325728812 -0.350581471374468 -3.09429414583454 9.83801457794459
-5.42992453222445 9.8995293478784 -0.438226839218085 -2.93957943854282 13.3550993716765
-5.78302792284306 9.70382693306344 -0.262936103530851 -2.78486473125109 6.92023926503283
-5.51567511480387 9.84772008880955 -0.525872207061701 -2.78486473125109 6.92023926503283
-2.93130668324299 10.3919129931947 3.33052397805744 3.71315297500145 5.62220177556877
-4.02992945692611 10.5510750839831 -2.70239884184486 -4.95087063333527 12.9703380502189
-2.59687045438272 11.2487473928438 -1.2611194595276 -4.95087063333527 12.9703380502189
-4.50345606853308 10.7030323832579 0.180159922789656 -4.79615592604354 22.4554349505967
-4.50345606853308 10.7030323832579 -0.180159922789656 -4.64144121875182 98.6830084336138
-4.68401707857637 10.6263985415669 0.0900799613948282 -4.48672651146009 115.836871304742
-4.13756572969255 10.8328860704675 0.630559729763799 -4.33201180416836 16.1564519151251
-4.95201264071819 10.4983911515576 -0.360319845579314 -3.86786768229318 5.07029034940353
-5.9408045285359 9.96857351498497 -0.450399806974142 -2.93957943854282 5.41065182789862
-5.66888831243731 10.1212678690543 -0.540479768368971 -2.93957943854282 5.41065182789862
-0.895472570476801 11.5098298397665 1.2611194595276 -2.93957943854282 5.41065182789862
-4.90091079037171 10.8674426917667 -0.370058219784161 -4.64144121875182 44.7726346135135
-4.26102754383335 10.3697015955683 4.07064041762576 -4.64144121875182 44.7726346135135
-3.9738153163975 11.2320011666507 0.55508732967624 -4.64144121875182 44.7726346135135
1.26428768301269 11.5736142046971 2.59040753848912 -4.64144121875182 44.7726346135135
-4.80713748910193 10.90571574492 -0.4625727747302 -4.48672651146009 38.966122417506
-4.99443320609173 10.8275475886298 0.277543664838121 -4.33201180416836 8.31317593941564
-4.24015059715823 11.101471575668 1.01766010440644 -4.33201180416836 8.31317593941564
-5.27190171754127 10.6951952817487 0.277543664838121 -4.17729709687663 12.0382135155034
-4.80554410355046 10.9021009097013 -0.55508732967624 -4.17729709687663 12.0382135155034
-5.35792882975463 10.6362771106419 0.64760188462228 -4.02258238958491 5.73016009735221
-4.80945419845871 10.9109715491831 -0.277543664838121 -4.02258238958491 5.73016009735221
-4.55742202239863 11.3606252274555 0.0949491484972513 -4.79615592604354 7.15243915893858
-4.55536494517172 11.3554973978791 -0.379796593989007 -4.64144121875182 12.0494919053724
-5.02488152953848 11.1423395346143 0.664644039480761 -4.48672651146009 8.2462225760488
-5.1147452121942 11.0883747771823 0.854542336475265 -4.33201180416836 7.36981769282293
-5.40623711649427 10.9677237547802 0.56969489098351 -4.17729709687663 11.2359155607333
-10.1951018047452 6.23175644526874 2.65857615792304 -3.86786768229318 7.0249022780019
-5.11737305250346 11.0940717331389 0.759593187978014 -3.86786768229318 7.0249022780019
11.2417251321807 4.41483489490668 1.99393211844228 -3.86786768229318 7.0249022780019
-10.1576952821463 6.20889170661629 2.84847445491755 -3.71315297500145 5.19710253925144
-7.57210011941816 9.18653413703631 2.84847445491755 -3.71315297500145 5.19710253925144
-6.5795898908251 9.77282562915472 3.32322019740381 -3.71315297500145 5.19710253925144
11.2559594482645 4.42042497602082 1.89898296994503 -3.71315297500145 5.19710253925144
-4.67441961832623 11.6522738466342 -0 -4.79615592604354 8.35292944995827
-5.06258336679864 11.4852332096664 0.29215122614539 -4.64144121875182 10.9749730263316
-4.67427899733192 11.6519233102108 -0.0973837420484629 -4.64144121875182 10.9749730263316
-5.15139167678411 11.422867345449 0.779069936387706 -4.48672651146009 7.76019946361166
-5.92591563046242 11.0336321062171 0.876453678436169 -3.86786768229318 22.7791169992443
-5.64400757829782 11.2041855210846 0.486918710242316 -3.86786768229318 22.7791169992443
11.1329022275494 5.64139949717819 1.36337238867849 -3.86786768229318 22.7791169992443
11.5383551575976 4.80899234760022 1.16860490458156 -3.86786768229318 22.7791169992443
-5.92896023177039 11.0393009366286 0.779069936387706 -3.71315297500145 19.1233149201
-5.64553775256324 11.2072231421564 0.389534968193853 -3.71315297500145 19.1233149201
11.1420488664624 5.64603439319273 1.26598864663002 -3.71315297500145 19.1233149201
-5.88485100513035 11.4334999449262 0.499091677998374 -4.02258238958491 10.1058820818713
-5.78789579146498 11.4898247964146 0.299455006799025 -3.86786768229318 77.6769726600533
-5.78876677349819 11.4915538239097 0.199636671199349 -3.71315297500145 60.4819311212293
-6.17681020867226 11.2612088021002 0.798546684797399 -3.55843826770973 5.99991258653241
-5.88928180038081 11.4421084036974 -0 -3.55843826770973 5.99991258653241
-6.03219683125674 11.719773716927 0.204505858301772 -4.02258238958491 8.19971945623435
-5.93049147786488 11.7728982159249 0.102252929150886 -3.86786768229318 67.8729303468321
-5.82841696160052 11.8242070750982 -0 -3.71315297500145 58.3619264419733
-6.33491195426186 11.5494509058581 0.511264645754432 -3.55843826770973 6.74518864896898
-5.82403195795042 11.8153111447752 -0.511264645754432 -3.55843826770973 6.74518864896898
-5.96647071566193 12.1042790373946 -0.209375045404195 -3.86786768229318 9.14548238095929
-5.96700928253154 12.1053716370202 -0.104687522702098 -3.71315297500145 8.74350432767521
-3.68099471039889 17.1865654465051 -0.136337238867848 -2.01129119479245 5.47358559172201
-7.82121365013294 15.5262599350649 -2.59040753848912 -1.85657648750073 7.50721196995379
-5.21622317284499 16.4353264607049 3.40843097169621 -1.85657648750073 7.50721196995379
-2.90542854644944 17.5986186541525 1.3877183241906 -2.01129119479245 12.7338836585969
-2.95640097708891 17.9073663498394 1.41206425970272 -2.01129119479245 5.72952870232286
-5.95662115067556 16.8364079320972 -3.53016064925679 -1.701861780209 5.18180872352161
16.6995391809291 18.6503268635984 -1.94767484096926 1.23771765833382 7.8877150123229
16.7091391547465 18.6610482761857 -1.75290735687234 1.39243236562554 17.2417603256788
-1.44412816152502 26.5578928473381 -4.60625099889231 -0.154714707291727 7.51944594513038
28.0996471195218 32.0442948524847 7.72739993154555 0.309429414583454 5.51261937908806
-27.9710069502219 31.8975960879989 8.73532166174715 0.464144121875182 5.25107961501266
28.0996471195218 32.0442948524847 7.72739993154555 0.464144121875182 5.25107961501266
28.1268324458789 32.0752964735991 9.13702959769706 0.309429414583454 9.91711243573863
28.1268324458789 32.0752964735991 9.13702959769706 0.464144121875182 5.25298458665525
-31.2810628362115 30.7082993406035 3.06758787452659 0.464144121875182 5.04854391773089
28.915296698925 32.2930907823335 8.92521995874166 0.154714707291727 6.10625485783099
-31.5663429854527 30.988355944329 1.37311076288333 0.309429414583454 15.968724194232
-22.1229236490965 38.685602890669 0.691424568544087 0.154714707291727 5.57965256322607
-22.5961653686793 38.7043791998835 2.43702814476279 0.154714707291727 7.66476418976157
-23.1209689759235 38.7966104366983 1.75290735687234 0 6.08220854156041
-22.7322009430853 38.937390968499 3.15523324237021 0.154714707291727 10.6096760486815
51.9007819914541 24.0193521538346 -5.34636743846063 -0.928288243750363 5.48670033367273
-48.4000914020983 42.3739311082825 6.51984153014461 2.78486473125109 5.28184399320173
-2.91098543590922 7.62147978790852 -0.189898296994504 0.62293026883248 8.64053280887343
-2.89693270528023 7.58468722923318 -0.822892620309514 0.726751980304561 11.6988308458587
-2.61210323085182 7.58062274455457 -1.51918637595603 0.726751980304561 11.6988308458587
-2.61958131625469 7.60232500487154 -1.39258751129302 0.830573691776641 7.19315545653398
-3.02149026389909 7.91080116430629 0.328670129413563 0.5191085573604 6.68806571968865
-3.01465518353401 7.89290570313064 -0.657340258827127 0.62293026883248 10.1188335936037
-3.00322881416444 7.86298942731385 -0.98601038824069 0.726751980304561 16.3448908277943
-3.54243500836758 7.18659721241241 -2.76082908707393 0.830573691776641 6.65472205164015
-3.124502813197 7.42577573364028 -2.62936103530851 0.830573691776641 6.65472205164015
-2.99074733788951 7.83031069317137 -1.24894649177154 0.830573691776641 6.65472205164015
-2.52250029129211 7.94791833302585 1.51188259530239 0.830573691776641 6.65472205164015
1.24653958971238 8.36587114430501 0.525872207061702 0.830573691776641 6.65472205164015
-3.10151575781134 8.12032220032586 -1.29520376924456 0.726751980304561 8.05195235867877
-5.27067355074397 8.48968156063637 1.01279091730402 1.0382171147208 10.1689185302334
-4.82310834765571 8.79321661880536 0.545348955471394 1.76496909502536 5.93042856505482
-4.5075817254665 8.94821298571121 0.701162942748936 1.76496909502536 5.93042856505482
-4.50989761892042 8.95281037498557 0.623255949110165 1.86879080649744 9.39462109643349
-4.73169522429211 8.81007891425373 0.934883923665247 1.97261251796952 7.83400551103446
-4.50499196508786 8.94307193029361 0.779069936387706 1.97261251796952 7.83400551103446
-5.43092013013498 8.74779704001734 1.12478222065975 1.0382171147208 6.94678885451887
-5.75511045798146 8.54820618239543 1.04444063346977 1.76496909502536 5.40089051237187
-4.73501739352872 9.19952281900398 0.482049523139893 1.76496909502536 5.40089051237187
-4.41546282526316 9.36089206913891 0.401707935949911 1.97261251796952 7.72879907944488
9.13023861981001 4.22541642424324 3.55937577187133 0.31146513441624 14.2736017026934
-4.9328395981445 9.38136311925004 1.24164271111791 0.41528684588832 9.51647165907042
-6.09421629304771 8.69408502553849 1.07609034963552 1.97261251796952 5.86125994360417
9.24046927355385 5.07518731315279 -1.65552361482388 1.97261251796952 5.86125994360417
-5.34143696236121 9.34038884141272 2.21548013160254 0.20764342294416 10.3134763315392
-4.96657185056968 9.64940300620281 1.70421548584811 0.20764342294416 10.3134763315392
-5.36600251898796 9.3833457933746 1.95984780872532 0.31146513441624 61.8701347646551
-5.05681917034457 9.61714970079947 1.6190047115557 0.31146513441624 61.8701347646551
-5.46472749481004 9.36038844344497 1.78942626014051 0.41528684588832 42.3006134043507
-5.06800279432893 9.63841891815368 1.44858316297089 0.41528684588832 42.3006134043507
-5.48445017927799 9.39417091255122 1.53379393726329 0.5191085573604 5.99395981327671
-5.14694555286089 9.58324539908539 1.53379393726329 0.5191085573604 5.99395981327671
-5.42513747946148 9.68607364085949 2.1034888282468 0.20764342294416 18.2173744886155
-5.1084739034431 9.92510023495146 1.75290735687234 0.20764342294416 18.2173744886155
-5.51125077278626 9.63733646640365 2.1034888282468 0.31146513441624 73.1111334583952
-5.2012997180687 9.8919254065366 1.66526198902872 0.31146513441624 73.1111334583952
-5.61338853483149 9.61502604107976 1.92819809255957 0.41528684588832 43.6172935112809
-5.20721423614965 9.90317374346077 1.5776166211851 0.41528684588832 43.6172935112809
-5.70514110943906 9.77218662041856 2.61231888045002 0.31146513441624 14.1431843395878
-5.34578026579283 10.1667011122737 1.71151926650174 0.31146513441624 14.1431843395878
-2.73947251797308 11.0585834095632 2.25199903487071 0.31146513441624 14.1431843395878
-5.71543586023593 9.78982022913532 2.5222389190552 0.41528684588832 6.11256742533436
-7.03138665590769 10.2353167566776 1.8502910989208 1.24586053766496 6.03406570990972
-6.92674427585505 10.2884625195368 1.94767484096926 1.34968224913704 10.3888242413638
-3.41335286598904 14.7854676721935 2.50519676419672 1.5573256720812 28.6234921146509
-2.82842057930748 14.9279788685409 2.38590168018735 1.5573256720812 28.6234921146509
-2.20851824236498 14.821975321085 3.45955743627165 1.5573256720812 28.6234921146509
-0.236253238491974 15.2272873676694 2.14731151216861 1.5573256720812 28.6234921146509
0.820468322511148 15.0886260474803 2.86308201622482 1.5573256720812 28.6234921146509
-3.39908305040333 14.7236557513888 2.86308201622482 1.66114738355328 35.1606757298067
-2.82484375116334 14.9091009069879 2.50519676419672 1.66114738355328 35.1606757298067
-2.20438561950541 14.7942401487596 3.57885252028102 1.66114738355328 35.1606757298067
-0.235701714942289 15.1917398863536 2.38590168018735 1.66114738355328 35.1606757298067
0.81790753486156 15.0415324959421 3.10167218424355 1.66114738355328 35.1606757298067
6.28695242900769 14.2628989181254 1.82594516340869 1.5573256720812 127.084264795389
7.03457478933573 13.9646660477079 1.33902645316637 1.5573256720812 127.084264795389
6.3812241911491 14.1499388923521 2.312863873651 1.66114738355328 149.061635552745
7.02967015904053 13.9549296348882 1.46075613072695 1.66114738355328 149.061635552745
6.3812241911491 14.1499388923521 2.312863873651 1.76496909502536 7.65821234926488
7.02967015904053 13.9549296348882 1.46075613072695 1.76496909502536 7.65821234926488
6.51625003718172 14.4493496970844 2.23495688001223 1.5573256720812 115.713281829026
7.16482185804258 14.2232256440806 1.61413552445328 1.5573256720812 115.713281829026
6.50884867497209 14.4329376701991 2.35912115112402 1.66114738355328 127.429371446826
7.15894017154156 14.211549630925 1.73829979556507 1.66114738355328 127.429371446826
6.48418342292714 14.3782441194405 2.73161396445939 1.76496909502536 6.46346359103699
7.15894017154156 14.211549630925 1.73829979556507 1.76496909502536 6.46346359103699
8.06337699951494 13.5302156488413 2.85577823557118 1.76496909502536 6.46346359103699
6.63647315879507 14.7159364480461 2.40537842859704 1.5573256720812 9.05071642762636
7.16034705422153 14.5263159544844 2.02558183460803 1.5573256720812 9.05071642762636
8.09691451525862 13.8689925761473 2.91177388724905 1.5573256720812 9.05071642762636
7.15312394399569 14.5116623098328 2.15218069927104 1.66114738355328 10.1906458822496
7.57031969343164 14.3973702286217 -3.48390337178377 2.18025594091368 6.88191762348083
-11.2371112809188 12.2886697508104 -4.55268994076565 0.10382171147208 11.8002199803747
-3.74916127910998 16.850427877825 0.133902645316636 0.10382171147208 11.8002199803747
-2.81119412915982 17.0278265842519 0.401707935949912 0.10382171147208 11.8002199803747
-11.2371112809188 12.2886697508104 -4.55268994076565 0.20764342294416 6.28881567890568
-3.74374337469243 16.8260773629124 0.937318517216457 0.20764342294416 6.28881567890568
-2.94443994853514 17.0016015297291 0.535610581266548 0.20764342294416 6.28881567890568
-3.81732784782107 17.1567992937855 0.136337238867848 0.10382171147208 10.0569552072971
-2.86230674969 17.3374234312383 0.409011716603547 0.10382171147208 10.0569552072971
-3.81457063912542 17.1444071498334 0.681686194339243 0.20764342294416 7.20108460593115
-2.99860707110381 17.3143699508962 0.409011716603547 0.20764342294416 7.20108460593115
4.48847936144279 17.5173395661981 5.25872207061701 0.726751980304561 6.06595961287074
5.33936537930493 17.8217208407055 2.9215122614539 0.726751980304561 6.06595961287074
-11.9188982379546 15.3711100001871 -0.603779200700473 1.97261251796952 5.03424125034276
-11.9459447683368 15.7210648711751 -1.07365575608431 1.97261251796952 6.98021088025945
-11.6072354298421 14.9691765990603 5.67503756787419 2.0764342294416 5.85326708432324
18.5882574519585 16.2738853972115 2.11566179600286 -2.49172107532992 11.1992620427435
18.7798889720818 16.0523652842235 -2.11566179600286 -1.76496909502536 6.31987884184471
4.1800977609153 24.1364598119081 3.8466578109143 0.31146513441624 5.78889229789885
16.0825464364435 21.596887654043 1.88437540863776 3.21847305563448 6.68840314057211
17.0672231540605 20.7060954895617 2.93125063565874 3.21847305563448 6.68840314057211
16.0486755153749 24.8211160230792 3.9318685852067 2.80318620974616 6.49355153689229
15.979167478757 27.9422257840649 3.00915762929751 2.28407765238576 7.11265228081028
15.979167478757 27.9422257840649 3.00915762929751 2.38789936385784 7.74916626120445
-3.3223203344616 32.7797733265721 0.76689696863165 0 7.60144533421157
-5.26046444900886 35.3044284375756 2.49789298354308 0 5.23193572527338
-3.32892053685625 35.608993571364 1.11017465935248 0 5.23193572527338
-5.25744213167042 35.2841448319691 2.7754366483812 0.10382171147208 5.97406804651992
-3.32801826168595 35.5993420610972 1.3877183241906 0.10382171147208 5.97406804651992
-14.6348389676448 32.4517789829126 3.60806764289556 0.726751980304561 18.6172876211074
-14.9109680047701 32.3258333833085 3.60806764289556 0.830573691776641 7.82852892857622
-3.35882934912602 35.9289239187693 0.839934775167997 -0.10382171147208 5.07779697146781
-3.3581215941971 35.9213531640953 1.11991303355733 0 6.08901810982936
-14.774427454949 32.761307140248 3.35973910067198 0.726751980304561 36.7605921138001
-14.774427454949 32.761307140248 3.35973910067198 0.830573691776641 14.5955748510392
-15.227797726671 33.0126958859825 1.9768899635838 0.726751980304561 9.19704837717147
15.8737889655012 33.6528312239812 5.84302452290779 1.76496909502536 5.92592687554908
17.767532965756 33.0818787178612 2.9215122614539 1.76496909502536 5.92592687554908
16.335223918588 33.8735443743294 5.30254475453882 1.76496909502536 7.90579011399659
17.9155957404706 33.3575610405101 2.94585819696601 1.76496909502536 7.90579011399659
-30.5951551484177 21.797045864815 7.42551033119532 0.5191085573604 6.94332778044981
-28.651432149607 23.9000920411138 8.61359198418657 0.5191085573604 6.94332778044981
1.18202605365949 38.078949234466 3.86126537222156 0.5191085573604 6.94332778044981
-13.2592964029457 35.5977983340943 6.88746515637756 0.41528684588832 9.20578519178203
-11.6096808664249 36.5798948437674 4.19237009518634 0.41528684588832 9.20578519178203
-13.219686475136 35.4914558722209 7.48637516997561 0.5191085573604 25.1297169573594
-11.5994272315192 36.5475875916618 4.49182510198537 0.5191085573604 25.1297169573594
-13.3670955606932 35.8872113286804 6.94346080805543 0.41528684588832 5.19051615456617
-12.0231599961521 36.8388745314356 3.62267520420283 0.41528684588832 5.19051615456617
-13.2837685186631 35.6634996664758 8.15101920945637 0.5191085573604 18.4127322734113
-11.9701399332721 36.6764214454991 5.13212320595401 0.5191085573604 18.4127322734113
-17.0231327308516 36.0894688684487 4.67441961832624 0.41528684588832 8.42314605334476
-10.1829967284704 38.4568498625261 5.60930354199148 0.41528684588832 8.42314605334476
6.55052081930071 39.6774919919601 4.71093852159441 0.31146513441624 17.8524611604805
8.47050106916308 39.5487721236326 1.88437540863776 0.31146513441624 17.8524611604805
6.54432529348385 39.6399647582079 5.0250010897007 0.41528684588832 45.2661222311638
8.15358134981716 39.5991365709496 2.19843797674405 0.41528684588832 45.2661222311638
6.59505649730931 39.9472513067212 5.06395458652009 0.31146513441624 17.8097859879775
8.53616386814884 39.855351752498 1.89898296994503 0.31146513441624 17.8097859879775
6.59505649730931 39.9472513067212 5.06395458652009 0.41528684588832 54.620841238686
8.22000965081 39.9217559513585 1.89898296994503 0.41528684588832 54.620841238686
6.63196590909616 40.1708171774357 5.7407715937569 0.41528684588832 5.06546617656095
8.27999346376781 40.2130766728247 2.23252228646102 0.41528684588832 5.06546617656095
-30.7601641308796 28.2198142182345 -0.323800942311139 3.21847305563448 6.99120748506129
-31.2846757834378 28.0426788959724 -1.95741321517411 3.21847305563448 5.74338416552961
-9.77637760909388 39.4648555604211 10.7657726834576 3.21847305563448 5.74338416552961
-31.1695200964114 26.0005990378319 12.1607947883018 3.1146513441624 5.35581582791764
-30.1834479625972 27.6907265626442 10.8461142706476 3.1146513441624 5.35581582791764
-30.2294641421342 29.6759556618417 -0.986010388240693 3.1146513441624 5.35581582791764
-30.8494178083422 28.9564380663741 2.30069090589494 3.21847305563448 8.40552746735407
-31.451163462404 28.8537468811934 -0.662209445929548 3.1146513441624 5.05668083687814
-30.9434799375909 29.7075363977785 3.00185384864388 3.01082963269032 8.68239088776964
-15.5703972436816 38.81348860358 10.0061794954796 3.01082963269032 8.68239088776964
32.1139443150933 26.7884069782689 10.0061794954796 3.01082963269032 8.68239088776964
35.6821603501037 21.8107221488829 10.0061794954796 3.01082963269032 8.68239088776964
-30.4621345532683 30.5702432822754 3.69571301073918 2.90700792121824 7.05587454367032
-25.8887067310082 34.0699748610736 6.71947820134396 2.90700792121824 7.05587454367032
-15.3274751689794 39.1501214237803 10.4151912120831 2.90700792121824 7.05587454367032
26.6432146901864 33.6698224555204 5.71155647114237 2.90700792121824 7.05587454367032
-15.5894861055941 38.8610728310535 11.0871390322175 3.01082963269032 18.9897772148817
-31.1316320159775 29.8881733115406 3.69571301073918 3.1146513441624 11.8963312732299
-30.6828746587268 30.7917667843209 3.72249353980251 2.90700792121824 12.3680660918601
-17.898582964055 38.8027531484389 8.79862109407865 2.90700792121824 12.3680660918601
26.9125810370325 34.0102287157733 4.73771905065774 2.90700792121824 12.3680660918601
35.1848573039834 25.066908295824 -6.09135306513137 2.90700792121824 12.3680660918601
-30.7358270375671 30.8449070887435 2.70726802894728 3.01082963269032 16.5237744425354
-17.177201828601 38.969070649743 9.47543810131547 3.01082963269032 16.5237744425354
-15.7024533962143 39.1426748080901 11.1674806194075 3.01082963269032 16.5237744425354
26.2254600121386 33.1418934498283 -10.8290721157891 3.01082963269032 16.5237744425354
-33.3774930923474 28.5298657615341 -1.70421548584811 2.80318620974616 6.59191945484401
-32.0151464355169 30.0506353379303 -1.70421548584811 2.80318620974616 6.59191945484401
-29.6310397860635 32.403885055616 1.70421548584811 2.80318620974616 6.59191945484401
-28.5445611580998 33.234097889453 3.40843097169621 2.80318620974616 6.59191945484401
35.4379857737963 25.2472457655782 6.13517574905318 2.80318620974616 6.59191945484401
-33.3986039244723 28.5479105321516 -0.68168619433924 2.90700792121824 18.3403481928505
-32.0305755322452 30.0651176755422 -1.02252929150887 2.90700792121824 18.3403481928505
35.734855470435 24.7385512981975 6.47601884622281 2.90700792121824 18.3403481928505
-40.1601562012461 17.6743872025894 -2.38590168018735 3.01082963269032 6.50687631809605
-30.9036147641852 31.0132902863663 3.74927406886583 3.01082963269032 6.50687631809605
35.2669722103539 24.4146447403367 -9.54360672074939 3.01082963269032 6.50687631809605
-29.5183288038011 32.9665672024509 0.686555381441663 2.90700792121824 6.90687051041879
26.2733431975032 36.0009667922265 0.345712284272043 2.69936449827408 7.00896341490041
-33.1883792901163 29.7491036810802 -0 2.80318620974616 7.21746203956057
25.9284213204033 36.2518228171209 -0 2.80318620974616 7.21746203956057
36.3977867292424 24.463326157233 7.95138253825702 2.80318620974616 7.21746203956057
-33.418078329093 29.954999258753 -0.69629375564651 2.69936449827408 19.7197219441061
-28.5059316958724 34.5836307632287 2.43702814476279 2.69936449827408 19.7197219441061
-33.418078329093 29.954999258753 -0.69629375564651 2.80318620974616 15.6478652310831
-28.4930277367785 34.5679755739352 2.78517502258605 2.80318620974616 15.6478652310831
-3.50201594590722 45.012665895594 2.1034888282468 0 5.10685363935617
-33.2801826168596 30.5317151950397 -1.75290735687234 2.69936449827408 15.2309920657408
-28.9921509938416 34.4588488080784 3.85639618511914 2.69936449827408 15.2309920657408
-29.0272719734782 34.5005921243141 3.15523324237021 2.80318620974616 12.0591815884342
6.12494250102942 46.0438056914702 5.44131658695788 0.20764342294416 6.07347095578443
7.59925819988398 46.0298523870537 3.26478995217473 0.20764342294416 6.07347095578443
8.32727324355619 45.9280916172495 2.90203551304421 0.20764342294416 6.07347095578443
6.12494250102942 46.0438056914702 5.44131658695788 0.31146513441624 5.54687806312564
8.67435842988433 45.7819605354336 3.99029883043578 0.31146513441624 5.54687806312564
6.14042327827555 46.1601812981561 6.93859162095301 0.20764342294416 6.05569257601023
8.36288346506546 46.1244955862503 4.38226839218084 0.20764342294416 6.05569257601023
-24.9930539639321 40.2572967835646 5.5508732967624 0.10382171147208 5.76799281285366
-16.2649185043246 44.7955060253966 2.22034931870496 0.10382171147208 5.76799281285366
6.25378681651906 47.0123833762172 5.18081507697825 0.10382171147208 5.76799281285366
5.89933996126362 47.1671767199667 4.07064041762576 0.20764342294416 20.2298934268723
5.89522683682296 47.1342909278886 4.44069863740992 0.31146513441624 11.9403926010289
5.9381514083772 47.4774870931243 4.09742094668909 0.10382171147208 19.0705454216617
5.9381514083772 47.4774870931243 4.09742094668909 0.20764342294416 61.8408125633879
5.93401122390732 47.444384947151 4.46991376002446 0.31146513441624 38.6300405559403
5.97279561099168 47.7544789664135 4.499128882639 0.10382171147208 13.3898020104513
5.97279561099168 47.7544789664135 4.499128882639 0.20764342294416 26.5468537168567
5.96826269716596 47.718236819177 4.87405628952558 0.31146513441624 26.4431303205266
-6.33718372313818 50.6678826002308 3.1747099907799 -0.10382171147208 6.04518545451048
-3.57144129639893 51.0348933018472 0.396838748847486 -0.10382171147208 6.04518545451048
-6.33718372313818 50.6678826002308 3.1747099907799 0 5.75208568303965
-3.57111894731785 51.0302870239909 0.793677497694972 0 5.75208568303965
-6.37278795669401 50.9525502388367 3.59346008158829 -0.10382171147208 5.13784369632315
-3.99225294724013 51.3138577495162 0.798546684797396 -0.10382171147208 5.13784369632315
-14.6975544797179 50.5406878952457 6.58314096247611 0.20764342294416 6.67000266983414
-12.3196017930639 51.4889304702295 3.29157048123806 0.20764342294416 6.67000266983414
-14.7845222577044 50.8397452200697 6.6220944592955 0.20764342294416 5.14391522916438
-12.3861351292452 51.7670019840768 3.72492813335372 0.20764342294416 5.14391522916438
-30.1645570548622 48.5872405771138 5.34636743846063 1.5573256720812 6.703209295097
-33.5963802933232 46.9727798171717 0.447965213422929 1.5573256720812 5.96774309800278
-30.7754111514409 48.5730034688752 5.37558256107517 1.5573256720812 5.96774309800278
-29.0115567173984 49.6931348327596 4.92761734765224 1.5573256720812 5.96774309800278
-32.0289769172089 50.55151332499 9.3975311076767 1.45350396060912 6.29616926257832
-29.473710159922 52.6225424072925 5.63851866460602 1.45350396060912 6.29616926257832
-6.80984981606403 62.3391144452538 -9.34397004955005 -0.10382171147208 7.18488762714026
