VERSION .7
FIELDS x y z velocity intensity
SIZE 4 4 4 4 4
TYPE F F F F F
COUNT 1 1 1 1 1
WIDTH 962
HEIGHT 1
VIEWPOINT 0 0 0 1 0 0 0
POINTS 962
DATA ascii
26.575600 2.389840 86.916400 -11.544000 9.150000
27.206000 2.401170 87.172500 -11.544000 6.020000
-2.298000 2.412490 91.721200 -12.076800 8.040000
27.335900 2.199670 87.588800 -11.544000 5.590000
-2.308790 2.423820 92.151800 -12.165600 7.870000
28.140000 2.423820 87.780600 -11.544000 12.440000
-2.319580 2.435150 92.582400 -12.165600 14.390000
21.577800 0.501409 90.094200 -11.721600 7.710000
-10.194200 3.597270 92.444500 -12.076800 11.270000
26.645000 1.951860 89.607300 -11.632800 8.730000
-10.827700 3.630580 93.239400 -12.076800 8.820000
26.771800 1.089420 90.033800 -11.632800 7.790000
-10.877400 3.647230 93.667100 -12.076800 10.290000
26.372700 0.510737 90.605600 -11.632800 5.180000
-2.459980 2.354580 98.186200 -12.165600 6.870000
-2.470770 2.364900 98.616800 -12.165600 9.530000
-2.481560 2.375230 99.047500 -12.165600 11.710000
-2.535500 2.426860 101.201000 -12.165600 4.710000
-2.546290 2.437190 101.631000 -12.165600 13.030000
-2.557080 2.447520 102.062000 -12.165600 9.420000
-2.567870 2.457850 102.493000 -12.165600 10.880000
-2.611500 1.531830 104.234000 -12.165600 10.020000
-2.622160 1.861950 104.659000 -12.165600 5.340000
-2.632790 2.194720 105.084000 -12.165600 11.260000
-2.686400 2.820240 107.223000 -12.165600 5.630000
-2.697190 2.831560 107.654000 -12.165600 8.580000
-2.707970 2.842890 108.085000 -12.165600 6.690000
-2.718530 3.189920 108.506000 -12.165600 8.440000
32.735800 -14.536800 107.063000 -11.455200 7.060000
-2.837970 2.015200 113.273000 -12.165600 9.100000
32.819700 -15.634300 107.338000 -11.455200 7.130000
-2.848760 2.022860 113.704000 -12.165600 10.380000
32.930100 -16.042100 107.699000 -11.455200 13.270000
-2.859380 2.383610 114.128000 -12.165600 11.650000
-2.870170 2.392610 114.558000 -12.165600 4.870000
7.416250 3.791400 116.476000 -12.076800 10.700000
-11.313300 2.455570 117.065000 -12.076800 4.840000
-10.676000 2.099490 117.564000 -12.076800 6.940000
-10.715000 2.107150 117.993000 -12.076800 5.920000
-33.116900 0.000000 113.776000 -11.721600 10.300000
-33.237300 0.275859 114.189000 -11.721600 5.760000
-1.384000 4.259600 119.706000 -12.165600 8.430000
-2.315530 3.160030 120.157000 -12.165600 11.990000
-2.323830 3.171350 120.588000 -12.165600 11.460000
-2.432030 2.635470 126.203000 -12.165600 9.020000
-2.440330 2.644460 126.633000 -12.165600 8.320000
3.183080 2.653460 127.048000 -12.076800 4.610000
-24.017400 2.671450 125.675000 -11.899200 7.220000
-24.826800 2.680440 125.957000 -11.899200 6.570000
-24.179200 2.689430 126.521000 -11.988000 5.100000
33.224000 -12.333500 123.869000 -11.632800 6.130000
-2.489960 3.098130 129.209000 -12.165600 6.360000
-2.498260 3.108450 129.640000 -12.165600 9.720000
-25.080500 1.504200 127.244000 -11.899200 5.750000
33.307300 -17.098300 124.180000 -11.544000 8.040000
-25.162800 1.911620 127.662000 -11.899200 7.470000
22.100500 2.734410 129.087000 -11.988000 5.180000
21.246100 1.936940 130.118000 -11.988000 6.810000
22.321000 1.943270 130.375000 -11.899200 6.010000
-33.633100 2.770390 128.355000 -11.810400 4.480000
-33.742300 2.779380 128.772000 -11.810400 7.620000
21.522700 2.375330 131.812000 -11.988000 7.900000
33.545000 -13.539000 132.165000 -11.632800 8.830000
33.670500 -12.735200 132.660000 -11.632800 9.210000
32.986700 -13.624100 133.189000 -11.632800 12.380000
33.035000 -15.793400 133.384000 -11.632800 8.070000
-2.673040 2.038220 138.709000 -12.165600 12.990000
7.259720 1.187380 139.418000 -12.076800 9.750000
21.528800 1.238690 144.039000 -11.988000 6.810000
21.592500 1.242350 144.465000 -11.988000 6.730000
21.655500 1.699100 144.887000 -11.988000 8.930000
21.720400 0.795258 145.320000 -11.988000 7.130000
-2.896860 3.139170 150.323000 -12.165600 6.210000
-2.904950 3.614480 150.744000 -12.165600 7.700000
-2.913250 3.624810 151.174000 -12.165600 7.190000
-2.921550 3.635130 151.605000 -12.165600 5.470000
-1.536510 0.409945 4.465170 -11.366400 0.160000
-2.009780 0.447212 4.743200 -11.188800 1.340000
-2.177690 0.471534 5.139490 -11.100000 2.330000
-2.032430 0.507806 5.657180 -11.277600 3.500000
-2.143090 2.360690 6.112860 -11.455200 5.780000
5.885980 0.605076 5.014750 -7.814400 5.550000
-2.169140 1.014450 6.465170 -11.455200 6.760000
6.109840 0.638691 5.412070 -7.992000 8.620000
-2.118590 1.077850 6.928910 -11.544000 8.160000
-2.159530 0.670819 7.419240 -11.632800 7.120000
-2.113740 2.582150 7.476180 -11.721600 11.100000
-2.213110 1.136100 8.251140 -11.721600 12.180000
-2.170700 0.594269 8.764560 -11.810400 9.760000
-2.274060 0.622568 9.181920 -11.810400 9.370000
-2.304270 0.589684 9.621050 -11.899200 10.710000
-2.206180 1.420130 10.448100 -11.988000 4.540000
-2.084640 1.476930 10.908200 -11.899200 3.460000
-2.163920 1.569400 11.323000 -11.899200 6.000000
-2.244060 1.627530 11.742400 -11.899200 8.110000
-2.174260 0.897768 12.272700 -11.988000 6.520000
-2.249230 0.928726 12.695900 -11.988000 8.280000
-2.069660 1.072960 13.152900 -11.988000 6.450000
-2.131510 1.447260 13.546000 -12.076800 6.030000
-2.198120 1.492480 13.969300 -12.076800 11.160000
-2.264730 1.537710 14.392600 -12.076800 12.760000
-2.331340 1.582940 14.815900 -12.076800 10.480000
-2.110390 1.649960 17.026600 -12.076800 6.990000
-2.163780 1.636810 17.457300 -12.076800 5.410000
-11.928200 -0.157585 14.177700 -9.412800 6.480000
-2.217180 1.621000 17.888200 -12.076800 12.000000
-12.093400 -0.161249 14.601000 -9.501600 14.810000
-12.368300 -0.164914 14.932800 -9.501600 13.380000
-12.643100 -0.168579 15.264700 -9.501600 9.860000
-10.350500 0.111942 17.906700 -10.567200 15.930000
-10.566100 0.114275 18.279800 -10.567200 11.830000
-10.781800 0.049974 18.653000 -10.567200 5.410000
-10.997500 0.000000 19.026200 -10.567200 13.540000
9.269840 0.186903 19.924200 -11.011200 18.550000
9.608100 0.121271 20.241900 -11.011200 7.160000
9.994370 -0.567990 21.481500 -11.011200 13.440000
-2.140870 1.135650 23.575300 -12.076800 18.960000
9.710250 -0.578317 22.082900 -11.188800 15.050000
9.885420 -0.360803 22.481200 -11.011200 9.410000
9.748910 -0.444417 23.008100 -11.277600 14.910000
9.915720 -0.609298 23.401700 -11.188800 21.870000
9.391830 -0.619625 24.079800 -11.277600 13.370000
10.018600 -0.575665 25.687000 -11.277600 7.670000
10.025300 0.411442 26.149600 -11.366400 15.510000
9.769060 0.417772 26.705600 -11.455200 20.320000
9.760600 0.334822 27.168200 -11.455200 18.910000
9.979100 -0.163249 28.464000 -11.455200 12.590000
-2.267350 1.897250 31.749300 -12.076800 10.980000
-2.327730 2.150690 32.594700 -12.165600 16.650000
9.755400 0.481071 31.257900 -11.632800 6.900000
9.883260 0.590002 31.667600 -11.632800 7.570000
-10.575900 0.815840 32.346300 -11.632800 18.370000
-10.709800 0.826167 32.755700 -11.632800 18.750000
7.655560 0.429771 36.255500 -11.899200 13.520000
-2.433000 2.163410 38.211700 -12.165600 13.940000
-2.460340 2.187720 38.641000 -12.165600 13.970000
-20.606100 1.777170 33.819800 -10.567200 14.180000
-2.487670 2.212030 39.070300 -12.165600 15.810000
-20.566000 1.796480 34.347000 -10.478400 9.420000
-2.515010 2.236340 39.499700 -12.165600 7.800000
-9.224150 -1.777170 38.513700 -11.899200 8.010000
-28.459800 0.474748 29.419900 -9.057600 7.100000
-9.105220 -1.053340 39.011400 -11.899200 7.930000
21.029400 0.000000 35.120900 -10.389600 7.570000
21.250800 0.000000 35.490600 -10.389600 14.610000
-12.194700 0.474748 39.074000 -11.632800 11.590000
21.472100 0.096950 35.860200 -10.389600 17.650000
-0.804270 2.131990 41.735100 -12.076800 16.210000
-1.056290 2.153970 42.160000 -12.076800 9.550000
-2.536320 2.106120 43.828000 -12.165600 8.890000
-27.978300 0.796885 34.997700 -9.590400 12.480000
-2.561180 2.126770 44.257700 -12.165600 8.930000
-28.248800 0.664638 35.336000 -9.679200 11.600000
-2.587090 1.732020 44.705300 -12.165600 7.700000
-2.612540 1.468990 45.145100 -12.165600 9.540000
-2.637420 1.482980 45.575100 -12.165600 7.640000
14.705600 1.466450 59.376300 -11.810400 5.810000
14.809100 1.476770 59.794400 -11.810400 6.360000
15.259600 1.630980 60.121800 -11.810400 6.220000
23.194300 1.241280 54.740100 -20.601600 7.930000
23.360800 1.435460 55.132900 -20.601600 8.270000
14.648000 1.653630 61.160000 -11.810400 11.280000
23.528800 1.445790 55.529500 -20.601600 6.470000
16.403900 1.664960 61.158700 -11.721600 10.150000
-2.505490 2.112550 64.983300 -12.165600 5.790000
-2.522090 2.126540 65.413700 -12.165600 6.020000
-2.538680 2.140530 65.844000 -12.165600 7.170000
-2.555270 2.154520 66.274400 -12.165600 6.920000
17.681700 1.180000 63.948700 -11.721600 8.330000
17.796500 1.187670 64.363900 -11.721600 6.030000
17.911300 1.195330 64.779200 -11.721600 10.800000
18.027000 0.993791 65.197700 -11.721600 10.050000
8.760300 2.210490 67.480000 -11.988000 8.420000
8.423060 2.224480 67.957000 -12.076800 7.700000
-2.124050 2.238470 68.874900 -12.165600 5.620000
6.669880 2.252460 69.016800 -12.165600 7.080000
-12.169600 2.482210 68.692000 -11.988000 7.770000
-11.845000 2.497530 69.185600 -11.988000 5.570000
-11.917700 2.512860 69.610100 -11.988000 13.900000
-34.831500 1.271950 62.462800 -10.744800 6.270000
-12.393600 2.747920 69.956000 -11.988000 9.490000
-11.318400 1.069750 71.929200 -12.076800 17.850000
-10.827300 1.076080 72.440400 -12.076800 7.700000
-10.892000 0.398795 72.873300 -12.076800 17.130000
-10.531800 0.401127 73.361600 -12.076800 11.480000
-10.593100 0.403459 73.788100 -12.076800 5.770000
-10.654500 0.000000 74.215700 -12.076800 6.780000
22.049000 0.174911 72.111700 -11.632800 7.790000
-2.389560 2.518270 77.484300 -12.165600 9.100000
-2.402830 2.532260 77.914700 -12.165600 12.760000
-2.416340 2.303830 78.352700 -12.165600 7.520000
-2.429830 2.072710 78.790000 -12.165600 5.480000
-9.751530 -1.164700 78.675000 -12.076800 10.390000
-10.261600 -1.171030 79.044600 -12.076800 9.480000
-8.369020 0.000000 80.142500 -12.076800 11.340000
-2.496360 1.941490 80.947400 -12.165600 9.460000
-2.509490 2.140660 81.373300 -12.165600 10.030000
-2.522920 1.962150 81.808600 -12.165600 5.880000
6.535670 0.984476 84.629600 -12.165600 10.980000
6.568580 1.253320 85.055700 -12.165600 6.420000
7.296900 1.265980 85.861200 -12.076800 10.150000
7.333380 1.272310 86.290500 -12.076800 9.580000
24.497800 1.601430 86.647300 -11.721600 7.290000
25.285300 1.609100 86.869600 -11.721600 6.900000
-10.783000 2.240980 92.854400 -12.076800 12.230000
-10.832100 2.469120 93.276900 -12.076800 8.880000
-10.880900 2.772190 93.696700 -12.076800 6.710000
-10.930500 2.784850 94.124500 -12.076800 7.490000
-10.981200 2.503100 94.560500 -12.076800 6.200000
-2.417350 1.119400 96.484800 -12.165600 11.730000
-1.867710 1.724030 96.919200 -12.165600 8.830000
22.230800 1.134400 95.247800 -11.810400 5.460000
22.329400 0.835564 95.670400 -11.810400 4.350000
22.427800 0.534059 96.092000 -11.810400 8.010000
21.781500 0.229883 96.683600 -11.810400 9.780000
-1.917400 2.077790 99.497700 -12.165600 7.860000
21.314300 0.538723 97.227600 -11.810400 8.690000
-1.925700 2.086790 99.928500 -12.165600 14.230000
21.970200 0.850223 97.521000 -11.899200 7.760000
22.065300 0.543387 97.943500 -11.899200 15.630000
22.160000 0.545719 98.363800 -11.899200 8.340000
-2.557260 2.131760 102.069000 -12.165600 12.330000
-2.568050 2.140750 102.500000 -12.165600 5.300000
-2.578840 2.149750 102.930000 -12.165600 5.200000
-2.589630 2.158740 103.361000 -12.165600 5.780000
-2.033170 3.101310 105.505000 -12.165600 5.710000
21.810800 0.244875 103.293000 -11.899200 6.370000
-2.041770 2.540460 105.951000 -12.165600 4.560000
21.899900 0.245875 103.714000 -11.899200 10.130000
-2.664970 2.550790 106.368000 -12.165600 8.280000
21.988900 0.246874 104.136000 -11.899200 14.920000
21.473200 0.247874 104.683000 -11.899200 7.890000
-2.719110 2.266680 108.529000 -12.165600 15.320000
-2.729900 2.275680 108.960000 -12.165600 8.860000
-2.740850 1.946240 109.397000 -12.165600 6.960000
-2.869970 2.747000 114.551000 -12.165600 7.880000
-2.880960 2.401600 114.989000 -12.165600 6.050000
-2.224520 2.410600 115.435000 -12.165600 9.530000
-2.232820 2.419590 115.865000 -12.165600 7.010000
6.138650 2.099490 117.888000 -12.165600 6.870000
6.161360 1.740720 118.324000 -12.165600 5.600000
5.268520 1.379270 118.804000 -12.165600 12.310000
-10.793900 1.384260 118.862000 -12.076800 13.830000
12.439700 2.130140 119.124000 -12.076800 10.930000
-36.831400 0.000000 114.893000 -11.632800 4.890000
-2.398970 2.214420 124.487000 -12.165600 9.220000
-2.407130 2.608480 124.911000 -12.165600 6.310000
-24.099800 2.283380 126.106000 -11.988000 4.700000
33.258400 -2.680440 123.997000 -11.721600 9.970000
-24.180600 2.291050 126.529000 -11.988000 4.610000
33.370000 -2.689430 124.414000 -11.721600 6.080000
-24.262700 1.898960 126.958000 -11.988000 9.020000
-24.344600 1.504200 127.387000 -11.988000 5.460000
33.415000 -13.613300 124.581000 -11.632800 8.030000
-24.423200 2.314030 127.798000 -11.988000 9.720000
32.710500 -16.756100 124.834000 -11.632800 8.170000
-24.505300 1.917950 128.228000 -11.988000 8.630000
-24.585000 2.329360 128.645000 -11.988000 13.600000
-24.665900 2.337020 129.068000 -11.988000 7.420000
-24.743500 3.160090 129.474000 -11.988000 11.400000
-24.824400 3.170410 129.898000 -11.988000 9.430000
-24.908500 2.360010 130.337000 -11.988000 5.940000
-33.640400 0.000000 128.383000 -11.810400 4.920000
-33.749600 0.000000 128.800000 -11.810400 5.430000
33.199000 45.791400 126.698000 -11.721600 7.070000
-2.689340 2.914300 139.555000 -12.165600 9.730000
7.326420 2.069870 140.698000 -12.165600 10.190000
7.348820 2.076200 141.129000 -12.165600 10.240000
-2.008510 0.425754 3.788420 -10.656000 0.000000
-2.112420 0.468329 4.217230 -10.922400 0.630000
-2.277110 0.526816 4.612420 -10.922400 2.930000
-2.187000 1.363460 4.973630 -11.011200 1.890000
-2.094050 0.587948 5.162200 -11.277600 1.890000
-2.313880 1.468350 5.374210 -11.011200 2.530000
-1.184300 1.286710 5.773570 -11.632800 0.240000
-2.108100 1.084290 6.013070 -11.544000 1.860000
-2.217870 1.035540 6.445270 -11.544000 2.880000
6.177270 -0.265818 5.366490 -7.814400 2.300000
-1.781660 1.100260 7.019620 -11.721600 3.080000
6.392350 -0.279808 5.773170 -7.992000 5.370000
-2.043570 1.164980 7.390890 -11.721600 2.200000
-2.221320 0.594269 8.751870 -11.810400 5.930000
-2.202770 0.651820 9.197260 -11.721600 10.960000
-2.247280 0.681448 9.628470 -11.810400 11.070000
-2.132790 0.615323 10.100600 -11.810400 8.400000
-2.079550 0.640961 10.550400 -11.810400 6.010000
-2.162730 0.666600 10.972400 -11.810400 7.290000
-2.179600 0.728153 11.405100 -11.988000 10.320000
-2.180470 1.442470 11.778500 -11.988000 4.820000
-1.052320 1.311580 12.382400 -11.988000 8.040000
-2.238880 1.545510 12.637500 -11.988000 6.650000
-2.073060 0.753549 13.174500 -12.076800 8.490000
-2.139940 0.777857 13.599500 -12.076800 4.200000
-2.098650 0.802165 14.041100 -11.988000 5.620000
-2.274070 0.781231 14.451900 -11.988000 6.290000
-2.046110 1.536550 14.862800 -12.076800 10.870000
-2.104570 1.580450 15.287500 -12.076800 7.270000
-2.112600 1.450870 17.044400 -12.076800 8.590000
-2.165420 1.487150 17.470500 -12.076800 8.320000
-11.817700 -0.272185 14.268100 -9.501600 5.230000
-12.093100 -0.219883 14.600600 -9.501600 11.520000
-12.367900 -0.224880 14.932400 -9.501600 12.810000
-9.499360 -1.301730 17.348100 -10.656000 4.800000
-12.642700 -0.229878 15.264200 -9.501600 9.900000
-2.050410 1.775380 19.635000 -12.076800 10.520000
-10.487600 0.239872 17.825500 -10.567200 15.660000
-2.094990 1.813970 20.061800 -12.076800 16.190000
-10.706100 0.244870 18.196800 -10.567200 8.330000
-10.924100 0.316494 18.567400 -10.567200 12.210000
-10.849400 0.322824 19.108300 -10.656000 14.190000
9.608100 0.121271 20.241900 -11.011200 10.820000
9.792870 0.123603 20.631200 -11.011200 18.390000
-2.232980 1.599920 23.105900 -12.076800 8.330000
9.995070 -0.494712 21.483000 -11.011200 18.000000
-2.274340 1.629550 23.533800 -12.076800 12.710000
10.050200 -0.503707 21.932100 -11.100000 15.860000
10.058800 -0.284849 22.405300 -11.100000 13.790000
9.882950 -0.212556 22.954100 -11.100000 14.450000
10.051500 -0.530691 23.345600 -11.100000 10.000000
9.579750 0.139928 24.013300 -11.188800 6.280000
9.550460 0.304838 24.486600 -11.277600 12.570000
9.707020 0.309835 24.888000 -11.277600 15.350000
10.019700 -0.405112 25.689800 -11.277600 17.490000
9.822390 -0.584660 26.223200 -11.366400 19.270000
9.766740 0.747533 26.699300 -11.366400 20.580000
9.760910 0.245539 27.169100 -11.455200 23.660000
9.811720 0.722896 28.513400 -11.455200 22.310000
10.004900 -0.364806 29.819900 -11.455200 10.090000
-2.267760 1.798790 31.754900 -12.076800 11.800000
9.499700 0.000000 30.438600 -11.544000 16.160000
9.627430 0.374801 30.847900 -11.544000 17.430000
9.755790 0.379798 31.259200 -11.544000 17.460000
-2.358350 2.178990 33.023600 -12.076800 24.490000
-10.575900 0.815840 32.346300 -11.544000 7.120000
-10.709100 0.906101 32.753800 -11.544000 12.880000
-10.843000 0.917427 33.163200 -11.544000 15.160000
-10.523100 0.928753 33.717700 -11.721600 18.970000
12.364000 2.066180 34.414600 -11.810400 16.010000
7.737310 1.680580 36.642600 -11.899200 10.380000
-2.406730 1.817040 37.799100 -12.076800 14.560000
-28.063300 0.576019 27.380500 -8.702400 12.420000
-2.433710 1.956150 38.222800 -12.076800 11.570000
-28.370300 0.704937 27.680000 -8.702400 15.710000
-2.461050 1.978130 38.652200 -12.076800 14.660000
-2.488400 2.000110 39.081700 -12.076800 9.010000
6.689040 -0.582349 39.070100 -11.899200 10.720000
21.029400 0.000000 35.120900 -10.389600 7.400000
-12.063000 1.064670 38.651900 -11.721600 16.820000
21.250800 0.000000 35.490600 -10.389600 12.430000
-12.191300 1.075990 39.063100 -11.721600 10.590000
21.472100 0.000000 35.860300 -10.389600 7.220000
-2.148310 2.110010 41.256700 -12.076800 14.950000
-2.170690 2.131990 41.686400 -12.076800 6.550000
-2.193060 2.153970 42.116200 -12.076800 6.830000
-2.215440 2.175950 42.545900 -12.076800 8.730000
-27.977000 0.651978 34.448300 -9.590400 12.220000
-2.283560 1.834530 43.854100 -12.076800 8.790000
-28.248600 0.658308 34.782800 -9.590400 10.820000
-2.305950 1.852520 44.284000 -12.076800 14.840000
-28.520300 0.664638 35.117200 -9.590400 17.120000
-26.642200 2.573470 40.158100 -10.300800 6.540000
-25.299100 2.596440 41.522200 -10.389600 8.270000
15.044900 1.986640 59.276000 -11.721600 9.990000
15.612000 1.810150 59.580600 -11.721600 6.200000
15.719700 2.014620 59.991500 -11.721600 12.130000
15.825400 2.414830 60.394900 -11.721600 9.810000
15.934500 2.431490 60.811400 -11.721600 9.500000
16.047200 2.056590 61.241400 -11.721600 11.770000
-2.488640 2.298340 64.546200 -12.076800 7.190000
-2.505490 2.112550 64.983300 -12.076800 10.090000
-2.522090 2.126540 65.413700 -12.076800 7.880000
-2.538680 2.140530 65.844000 -12.076800 9.950000
17.932700 1.376200 63.427000 -11.721600 11.430000
18.049900 1.385190 63.841600 -11.721600 6.630000
-33.639500 0.000000 58.197700 -10.656000 10.720000
7.315290 2.581380 66.337500 -11.988000 8.640000
18.167100 1.394190 64.256100 -11.721600 5.470000
-34.305400 0.156920 58.307900 -10.567200 7.640000
6.458720 3.221120 66.831800 -12.076800 6.380000
18.282000 1.766900 64.662400 -11.721600 4.720000
6.501920 2.823740 67.278900 -12.076800 9.380000
18.399200 1.778220 65.076900 -11.721600 6.800000
7.455950 2.841730 67.613000 -11.988000 13.860000
36.073200 -19.864100 55.293900 -11.188800 14.430000
-2.110550 2.436250 68.437200 -12.165600 12.640000
-2.123830 2.451570 68.867700 -12.165600 10.350000
-2.137100 2.466890 69.298100 -12.165600 6.220000
-35.616500 0.162917 60.536200 -10.567200 7.260000
-12.244700 2.497530 69.116000 -11.988000 7.450000
-31.474000 0.164916 63.752300 -11.011200 12.700000
-35.103400 -0.604685 61.825400 -10.656000 13.450000
-11.917700 2.512860 69.610100 -11.988000 10.980000
-31.664800 0.165915 64.138700 -11.011200 5.790000
-34.835800 -0.608349 62.470400 -10.744800 7.120000
7.001300 2.364380 72.446200 -12.076800 14.470000
-10.409500 0.000000 72.509600 -11.988000 5.860000
-10.470600 0.398795 72.935100 -11.988000 7.050000
-10.531800 0.401127 73.361600 -11.988000 8.520000
-10.593200 0.172912 73.789000 -11.988000 8.640000
-2.402830 2.532260 77.914700 -12.076800 6.060000
-2.416340 2.303830 78.352700 -12.165600 9.770000
-2.509280 2.392440 81.366300 -12.165600 18.580000
-2.103800 2.208620 83.970100 -12.076800 11.180000
-2.114590 2.219950 84.400700 -12.076800 8.100000
5.392820 1.771970 84.697300 -12.076800 7.190000
6.077050 0.989474 85.095700 -12.076800 5.560000
6.107930 0.729286 85.528200 -12.076800 5.280000
6.138620 0.732951 85.958000 -12.076800 5.840000
6.169450 0.468759 86.389600 -12.076800 5.980000
5.530700 0.740281 86.862800 -12.076800 9.160000
5.052770 1.555460 87.312800 -12.165600 7.450000
24.733500 1.335600 87.480900 -11.632800 10.720000
-10.292700 2.469120 93.338000 -12.076800 6.490000
-10.339900 2.480450 93.766100 -12.076800 10.160000
-10.387200 2.491780 94.194300 -12.076800 5.610000
-10.434400 2.503100 94.622400 -12.076800 7.610000
-2.406460 1.411560 96.050200 -12.165600 8.600000
-2.417250 1.417890 96.480900 -12.165600 8.880000
-2.428140 1.124400 96.915600 -12.165600 8.860000
22.133500 0.828235 94.831200 -11.810400 14.140000
22.427800 0.534059 96.092000 -11.810400 14.320000
21.780800 0.842894 96.680300 -11.810400 11.380000
-2.492670 1.770010 99.490900 -12.165600 7.420000
21.873900 1.462200 97.093700 -11.810400 5.920000
-2.503580 1.468530 99.926700 -12.165600 6.770000
21.968600 1.468530 97.514000 -11.810400 8.240000
22.063300 1.474860 97.934300 -11.810400 5.560000
-2.557410 1.815980 102.075000 -12.165600 6.380000
-2.568050 2.140750 102.500000 -12.165600 7.120000
-2.578840 2.149750 102.930000 -12.165600 12.900000
-2.589780 1.838970 103.367000 -12.165600 15.470000
18.981600 0.000000 102.536000 -11.899200 14.640000
-2.643400 2.530140 105.507000 -12.165600 6.960000
21.810900 0.000000 103.293000 -11.899200 11.390000
-2.654190 2.540460 105.938000 -12.076800 9.240000
21.899900 0.000000 103.714000 -11.810400 7.150000
21.989000 0.000000 104.136000 -11.810400 6.580000
-2.719110 2.266680 108.529000 -12.165600 5.260000
-33.741800 1.595130 103.199000 -11.632800 4.650000
-2.729710 2.612750 108.952000 -12.165600 8.180000
-2.740500 2.623080 109.383000 -12.165600 6.620000
-33.533300 2.633410 104.604000 -11.632800 6.940000
-33.667100 2.302660 105.022000 -11.632800 10.100000
-33.798600 2.311650 105.432000 -11.632800 13.610000
-33.372000 1.992210 106.930000 -11.632800 8.130000
-33.500400 1.999880 107.341000 -11.632800 7.600000
-33.628800 2.007540 107.752000 -11.632800 10.370000
-2.870170 2.392610 114.558000 -12.165600 4.660000
-2.216350 2.045850 115.011000 -12.165600 4.520000
-2.224650 2.053510 115.442000 -12.165600 9.350000
-12.797500 2.076500 116.052000 -12.076800 10.350000
-12.844700 2.084160 116.480000 -12.076800 9.060000
6.819590 2.464570 117.844000 -12.076800 7.740000
7.528050 2.473560 118.232000 -12.076800 10.350000
-10.755200 1.011470 118.437000 -12.076800 5.210000
-11.480800 1.384260 118.798000 -12.076800 9.080000
-33.355500 1.384260 114.596000 -11.721600 7.920000
-33.476000 1.389260 115.009000 -11.721600 10.670000
-24.102700 1.092100 126.121000 -11.899200 5.830000
34.216900 -1.886300 123.751000 -11.721600 10.370000
-24.183600 1.095760 126.544000 -11.988000 13.280000
34.331700 -1.892630 124.166000 -11.632800 11.690000
-24.265000 0.699640 126.970000 -11.988000 5.310000
-24.345900 0.701972 127.394000 -11.988000 9.740000
-25.246200 1.917950 128.084000 -11.899200 10.060000
-25.329500 1.924280 128.507000 -11.899200 5.270000
-24.667100 1.930610 129.074000 -11.988000 6.200000
-23.997800 2.344680 129.632000 -11.988000 7.930000
-24.076200 2.352340 130.056000 -11.988000 9.040000
-33.639200 1.128740 128.378000 -11.810400 5.900000
-2.020620 0.512071 4.256940 -10.922400 0.000000
-2.140740 0.574518 4.671650 -11.100000 3.680000
-2.280060 0.622395 5.078680 -11.100000 3.220000
-2.137180 1.341340 5.479560 -11.366400 0.240000
-1.490830 1.341340 5.689510 -11.366400 0.220000
-2.255860 1.437150 5.884090 -11.188800 0.160000
5.999780 -0.017991 4.915380 -7.548000 0.250000
-2.147950 1.295810 6.882380 -11.544000 2.020000
6.231960 -0.018990 5.309520 -7.725600 5.010000
-2.041470 0.548872 7.013640 -11.632800 7.060000
6.505730 -0.046643 5.651840 -7.814400 5.210000
-2.103370 0.623010 7.439510 -11.721600 10.390000
-2.220230 0.657622 7.852820 -11.721600 9.060000
-2.113270 0.692234 8.326150 -11.810400 5.120000
-2.225380 0.692234 8.296890 -11.632800 3.940000
-2.102190 0.650108 8.777290 -11.810400 7.860000
-2.185930 1.336850 9.126950 -11.810400 7.740000
-2.133180 0.583393 10.102400 -11.810400 5.490000
-2.079920 0.607701 10.552300 -11.899200 8.650000
-2.310530 0.666600 10.942300 -11.899200 3.050000
-2.245000 1.590540 11.747300 -11.899200 9.980000
-2.093600 1.493990 12.228500 -11.988000 7.480000
-2.238880 1.545510 12.637500 -11.988000 4.920000
-2.073060 0.753549 13.174500 -11.988000 3.070000
-2.127980 1.648540 13.523500 -11.988000 4.020000
-2.195280 1.656390 13.951200 -11.988000 5.380000
-2.275020 0.656779 14.458000 -11.988000 2.590000
-1.980780 1.490710 17.056800 -11.988000 10.260000
-2.164390 1.582400 17.462300 -11.988000 7.150000
-2.217180 1.621000 17.888200 -11.988000 8.100000
-12.204700 -0.278515 14.506300 -9.501600 6.760000
-12.482100 -0.284845 14.836000 -9.501600 9.630000
-2.005270 1.796500 19.202700 -11.988000 9.660000
-2.049830 1.836430 19.629400 -11.988000 5.660000
-10.349000 0.367793 17.904100 -10.567200 5.390000
-2.095560 1.751580 20.067300 -11.988000 8.830000
-2.140570 1.741050 20.498300 -11.988000 4.630000
-2.188220 1.386630 20.954600 -11.988000 16.250000
9.608100 0.121271 20.241900 -10.922400 12.840000
9.792870 0.123603 20.631200 -10.922400 15.870000
10.176100 -0.578317 21.872100 -10.922400 7.190000
-2.137790 1.702660 23.541400 -12.076800 7.270000
10.056600 -0.588644 22.400400 -11.011200 10.580000
-2.176660 1.733620 23.969400 -12.076800 6.180000
10.233000 -0.598971 22.793300 -11.100000 17.710000
10.218200 -0.234544 25.613600 -11.277600 7.400000
9.822390 -0.584660 26.223200 -11.366400 11.380000
9.972810 -0.681588 26.624800 -11.366400 17.240000
9.759720 0.513378 27.165800 -11.366400 8.310000
9.693770 0.249203 27.650100 -11.455200 18.060000
9.976380 -0.722896 28.456200 -11.455200 9.880000
10.120200 -0.544028 28.866500 -11.455200 8.120000
10.093900 -0.455751 29.333300 -11.455200 11.870000
10.234100 -0.462081 29.740700 -11.455200 13.910000
-2.235840 2.065790 31.308100 -12.076800 5.810000
-2.266470 2.094090 31.736900 -12.076800 16.010000
9.499670 0.073962 30.438600 -11.632800 17.960000
-2.358820 2.076580 33.030100 -12.076800 24.000000
10.140900 -0.394790 32.493100 -11.544000 19.300000
-10.821100 1.210460 32.252700 -11.632800 18.230000
-10.079500 0.079959 32.965400 -11.632800 8.080000
-19.983100 0.519050 29.135600 -10.123200 13.600000
-10.398300 0.080959 33.317900 -11.632800 14.160000
-20.226800 0.525380 29.490900 -10.123200 16.970000
-20.470500 0.531710 29.846300 -10.123200 11.910000
-2.187590 2.022010 37.802000 -12.076800 9.470000
-27.757500 0.209892 27.082100 -8.791200 9.500000
-2.212450 2.044990 38.231600 -12.076800 13.760000
-28.065900 0.212224 27.383000 -8.791200 14.860000
-2.236930 2.187720 38.654600 -12.076800 8.620000
-28.682200 0.340822 27.984300 -8.791200 15.440000
-2.262170 2.090940 39.090700 -12.076800 7.910000
-27.861500 0.340822 28.801500 -8.968800 11.490000
6.378230 2.236340 39.062400 -11.899200 7.300000
-11.714900 0.836513 38.314000 -11.632800 7.890000
20.758100 0.000000 35.281900 -10.389600 18.040000
-12.064600 0.845508 38.656900 -11.632800 17.820000
21.250800 0.000000 35.490600 -10.389600 8.600000
-2.126250 1.961580 40.833200 -12.076800 12.610000
-12.192900 0.854503 39.068100 -11.632800 8.540000
21.472100 0.000000 35.860300 -10.389600 8.140000
-2.148310 2.110010 41.256700 -12.076800 9.620000
-2.170690 2.131990 41.686400 -12.076800 7.200000
-28.286100 1.155280 33.620300 -9.501600 11.400000
-2.262170 1.278500 43.443300 -12.076800 10.870000
-27.970400 1.166600 34.440100 -9.590400 12.240000
-2.284560 1.291160 43.873400 -12.076800 16.860000
-28.241900 1.177930 34.774500 -9.590400 13.920000
-2.303870 2.640760 44.244100 -12.076800 5.480000
-2.326240 2.666400 44.673700 -12.076800 7.400000
-2.348160 2.831700 45.094700 -12.076800 6.220000
22.385900 -0.115941 44.691100 -10.833600 15.180000
22.578900 -0.116940 45.076400 -10.833600 13.730000
22.540900 -0.609676 47.488100 -10.922400 7.340000
23.094000 -0.614673 47.700800 -10.922400 8.750000
15.047700 1.608330 59.286800 -11.721600 5.970000
24.274200 1.585680 55.203900 -20.335200 7.960000
15.152300 1.810150 59.699200 -11.721600 7.850000
24.450700 1.268260 55.605300 -20.335200 6.880000
15.256800 2.014620 60.110900 -11.721600 7.100000
15.362800 2.028610 60.528400 -11.721600 9.960000
15.468700 2.042600 60.945800 -11.721600 6.010000
-2.489140 1.898760 64.559100 -12.076800 5.410000
-2.004570 2.112550 65.000700 -12.076800 11.100000
-2.017850 2.126540 65.431200 -12.076800 5.350000
-2.030150 2.955500 65.830100 -12.076800 8.340000
17.565800 1.376200 63.529600 -11.632800 7.380000
-33.858800 1.600700 57.548800 -10.567200 7.470000
7.266210 2.974820 65.892500 -11.988000 6.970000
18.049900 1.385190 63.841600 -11.632800 8.650000
-34.085800 0.571702 57.934600 -10.567200 8.610000
7.700320 2.168510 66.308700 -11.988000 7.180000
18.165900 1.600700 64.251700 -11.632800 13.150000
-33.855000 0.156920 58.570600 -10.567200 6.370000
18.283100 1.611030 64.666200 -11.632800 13.590000
6.503480 2.405600 67.295000 -11.988000 11.180000
-2.097280 2.420920 68.006800 -12.076800 10.380000
-2.110310 2.647990 68.429400 -12.076800 12.880000
-2.123320 2.877700 68.851200 -12.076800 7.710000
-2.136590 2.895680 69.281500 -12.076800 9.970000
-12.170900 2.266450 68.699200 -11.988000 8.420000
-34.409800 1.475140 61.706600 -10.656000 9.160000
-12.246000 2.280440 69.123300 -11.988000 16.160000
-11.920100 2.075980 69.624100 -11.899200 6.840000
-12.288600 0.394131 71.776700 -11.988000 8.220000
-10.828300 0.396463 72.447200 -11.988000 9.860000
-10.470600 0.398795 72.935100 -11.988000 8.340000
-10.531800 0.401127 73.361600 -11.988000 13.820000
-10.593200 0.000000 73.789200 -11.988000 13.330000
-11.654500 0.000000 74.065300 -11.988000 7.450000
-2.389990 2.038730 77.498400 -12.076800 9.370000
-2.403270 2.050050 77.928900 -12.076800 13.510000
-2.416340 2.303830 78.352700 -12.076800 13.740000
29.377300 0.674315 73.639200 -11.188800 9.750000
29.537600 0.431445 74.041000 -11.188800 14.810000
1.543550 2.354460 80.097900 -12.076800 14.770000
-2.017320 2.367120 80.518300 -12.076800 11.560000
4.211130 2.129340 80.871600 -12.076800 9.410000
4.233780 1.951820 81.306500 -12.076800 8.950000
3.153370 1.962150 81.786700 -12.076800 7.690000
-8.590320 1.982800 82.261700 -21.578400 7.550000
-2.103620 2.468390 83.962900 -12.076800 5.720000
-8.634560 2.185970 82.685300 -21.578400 8.680000
-2.601690 3.003170 84.362900 -12.076800 10.750000
-8.679290 2.197290 83.113800 -21.578400 8.630000
6.535670 0.984476 84.629600 -12.076800 6.960000
6.076800 1.253320 85.092300 -12.076800 5.320000
6.107490 1.259650 85.522000 -12.076800 6.140000
6.138430 0.999469 85.955300 -12.076800 6.890000
6.668720 0.468759 86.352500 -12.076800 6.530000
24.730800 1.897900 87.471200 -11.632800 11.680000
-2.330670 1.942870 93.024900 -12.076800 9.810000
-2.881270 2.457800 93.428600 -12.076800 11.380000
-10.292700 2.469120 93.338000 -12.076800 7.700000
26.252300 0.508405 90.191800 -11.632800 13.640000
-10.339900 2.480450 93.766100 -12.076800 5.740000
25.673900 -0.218888 90.807200 -11.632800 11.660000
-10.386300 2.784850 94.186100 -12.076800 7.770000
25.790300 0.806246 91.218800 -11.632800 5.200000
25.907500 0.809911 91.633400 -11.632800 5.980000
-2.406200 2.005830 96.039600 -12.076800 5.370000
-2.416990 2.014830 96.470300 -12.076800 6.760000
-1.867600 2.023820 96.913400 -12.076800 5.690000
23.306900 0.824570 94.105800 -11.721600 5.860000
22.681300 0.828235 94.701600 -11.721600 5.710000
21.496700 0.831900 95.419300 -11.810400 5.010000
22.329400 0.835564 95.670400 -11.810400 9.130000
21.686500 0.534059 96.262000 -11.810400 13.870000
-2.481560 2.375230 99.047500 -12.076800 15.600000
22.525700 0.536391 96.511700 -11.810400 8.670000
-2.492670 1.770010 99.490900 -12.076800 11.970000
22.621600 1.462200 96.922200 -11.810400 8.310000
-2.503580 1.468530 99.926700 -12.076800 11.790000
22.719500 1.468530 97.341800 -11.810400 7.410000
22.817400 1.474860 97.761400 -11.810400 4.650000
-2.557260 2.131760 102.069000 -12.076800 7.850000
-2.568050 2.140750 102.500000 -12.076800 5.790000
-2.578990 1.831300 102.937000 -12.076800 8.830000
-2.589780 1.838970 103.367000 -12.076800 5.390000
-2.632790 2.194720 105.084000 -12.076800 4.970000
-2.643400 2.530140 105.507000 -12.076800 6.230000
-2.654190 2.540460 105.938000 -12.076800 6.980000
-2.083410 2.257690 108.112000 -12.076800 10.260000
-2.091710 2.266680 108.543000 -12.076800 11.190000
-2.099870 2.612750 108.966000 -12.076800 11.050000
-2.107860 3.215230 109.381000 -12.076800 13.410000
-34.007900 1.946240 104.013000 -11.544000 7.440000
-34.275700 1.961560 104.832000 -11.544000 11.670000
-34.275700 1.961560 104.832000 -11.632800 11.260000
33.428000 -18.736600 107.109000 -11.455200 9.520000
33.554600 -18.807600 107.515000 -11.455200 11.410000
-2.859380 2.383610 114.128000 -12.076800 7.170000
33.760200 -17.215800 108.173000 -11.455200 9.820000
-2.207920 2.392610 114.573000 -12.076800 6.060000
-2.216350 2.045850 115.011000 -12.076800 11.250000
-2.891920 2.053510 115.427000 -12.076800 14.180000
-12.124900 2.798640 116.109000 -12.076800 12.730000
-12.169600 2.808970 116.537000 -12.076800 6.470000
-12.214400 2.819290 116.966000 -12.076800 7.000000
6.138650 2.099490 117.888000 -12.076800 11.040000
5.249220 1.740720 118.368000 -12.076800 10.210000
-10.754500 1.747050 118.428000 -12.076800 7.110000
-2.448460 3.046490 127.055000 -12.076800 5.150000
34.583200 -0.687980 122.319000 -11.632800 12.310000
-2.456760 3.056820 127.486000 -12.076800 13.600000
33.990400 -0.690312 122.932000 -11.632800 10.450000
-23.372500 1.489210 126.254000 -11.899200 7.800000
34.934200 -1.092100 123.560000 -11.632800 10.270000
-23.451000 1.494210 126.678000 -11.899200 9.120000
34.334900 -0.697308 124.178000 -11.632800 10.840000
-23.530100 1.099430 127.106000 -11.899200 10.100000
-24.504100 2.321700 128.222000 -11.899200 4.920000
-25.329500 1.924280 128.507000 -11.899200 6.950000
-21.176700 1.930610 129.693000 -11.899200 9.490000
-6.856190 1.529190 131.668000 -11.899200 6.640000
-33.527600 1.943270 127.952000 -11.810400 6.640000
-33.636800 1.949600 128.369000 -11.810400 5.060000
-2.081630 0.595782 4.216460 -10.833600 2.300000
-2.235350 0.649944 4.617140 -10.922400 4.970000
-2.383010 0.704106 5.020410 -10.922400 3.230000
-2.020570 1.341340 5.523620 -11.100000 0.000000
-2.210450 1.437150 5.901300 -11.100000 0.490000
-2.215030 1.378620 5.913530 -11.277600 0.000000
-2.180900 0.723629 6.500220 -11.455200 0.250000
-2.228480 1.470530 6.356430 -11.277600 0.160000
-2.219520 0.689165 7.850310 -11.632800 2.300000
-2.112600 0.725437 8.323500 -11.721600 4.450000
-2.078850 1.490410 8.679840 -11.721600 5.060000
-2.246690 1.590300 9.071380 -11.810400 5.010000
-1.140020 0.742591 9.816870 -11.810400 3.550000
-2.131060 0.742981 10.092300 -11.810400 5.960000
-2.201380 1.585080 10.425400 -11.810400 8.650000
-2.143960 1.614200 10.877200 -11.810400 9.620000
-2.161090 1.676290 11.308300 -11.810400 10.270000
-2.174280 1.701440 11.745100 -11.810400 4.180000
-2.270200 0.782090 12.263200 -11.899200 10.250000
-2.250640 0.809058 12.703800 -11.899200 6.420000
-2.326100 0.794792 13.129800 -11.899200 9.590000
-2.212570 1.849390 14.803200 -11.899200 8.350000
-2.112820 0.791253 15.347500 -11.988000 11.080000
-2.171510 0.813233 15.773800 -11.899200 8.790000
-2.224130 1.466620 16.156000 -11.899200 10.390000
-2.058810 1.505210 16.610400 -11.988000 8.920000
-2.210050 1.543810 17.023900 -11.988000 6.680000
-2.216560 1.676740 17.883100 -11.988000 4.380000
-2.271050 1.559690 18.322700 -11.988000 5.620000
-2.165990 1.546310 19.641900 -11.988000 7.250000
-2.213080 1.579920 20.068900 -11.988000 8.440000
-10.350200 0.175908 17.906300 -10.567200 8.170000
-2.141260 1.661360 20.504900 -11.988000 10.650000
-10.565900 0.179573 18.279400 -10.567200 14.410000
-2.186270 1.647150 20.935900 -11.988000 16.040000
-10.781700 0.116607 18.652800 -10.567200 19.550000
-10.997400 0.118939 19.025900 -10.567200 8.080000
9.608210 0.051973 20.242100 -10.833600 18.620000
9.633570 0.123603 20.706000 -10.922400 7.360000
9.815330 0.125935 21.096700 -10.922400 12.910000
9.744290 -0.888693 22.997200 -11.100000 17.970000
9.915720 0.609298 23.401700 -11.100000 22.440000
10.086700 0.000000 23.805200 -11.100000 22.180000
10.218400 -0.149257 25.614200 -11.188800 15.230000
10.175200 -0.584660 26.088300 -11.277600 14.440000
10.332900 -0.417772 26.492600 -11.277600 7.990000
9.761230 0.066966 27.170000 -11.366400 18.490000
10.488600 -0.455751 29.194500 -11.366400 13.220000
10.003400 -0.656618 29.815500 -11.455200 19.850000
-2.022940 1.798790 31.771500 -11.988000 21.190000
9.907810 -0.567015 30.303000 -11.455200 18.990000
-2.050280 1.823100 32.200800 -11.988000 17.210000
9.865410 0.174910 30.774400 -11.455200 17.400000
-2.077620 1.847410 32.630200 -11.988000 7.990000
9.997100 0.000000 31.185200 -11.455200 17.120000
10.140500 -0.500061 32.491800 -11.544000 18.230000
-10.519600 0.906101 32.815200 -11.544000 15.520000
-10.651100 0.917427 33.225400 -11.544000 12.120000
-10.782600 0.928753 33.635500 -11.544000 14.060000
-27.647900 0.424774 24.019000 -8.169600 16.610000
-27.973200 0.429771 24.301600 -8.169600 16.700000
-28.298400 0.434769 24.584200 -8.169600 16.860000
-2.187220 2.139110 37.795600 -11.988000 17.300000
-2.212080 2.163410 38.225100 -12.076800 15.610000
-2.236930 2.187720 38.654600 -12.076800 15.860000
-28.359800 1.287120 27.669800 -8.791200 12.830000
-2.286640 2.236340 39.513600 -12.076800 17.710000
-2.148310 2.110010 41.256700 -12.076800 15.080000
-28.001600 0.096950 31.030900 -9.235200 11.170000
-2.170690 2.131990 41.686400 -12.076800 7.020000
-28.290300 0.097950 31.350800 -9.235200 10.050000
-2.193060 2.153970 42.116200 -12.076800 10.740000
-28.266400 0.890482 31.937700 -9.324000 17.720000
-2.215440 2.175950 42.545900 -12.076800 20.390000
-28.551900 0.899476 32.260300 -9.324000 11.850000
-1.927970 0.504732 43.475200 -11.988000 9.020000
-2.285400 0.509729 43.889400 -12.076800 7.380000
9.410610 0.645648 42.927700 -11.721600 9.050000
-2.303870 2.640760 44.244100 -12.076800 9.300000
1.379970 2.008970 44.747300 -12.076800 9.000000
1.393240 2.028290 45.177500 -12.076800 8.430000
22.127300 0.000000 44.819900 -10.744800 10.530000
22.578900 0.000000 45.076500 -10.744800 8.570000
22.542300 0.121938 47.491200 -10.833600 8.380000
22.727100 0.122937 47.880400 -10.833600 7.340000
22.912000 0.000000 48.269800 -10.833600 8.340000
-4.985490 1.790770 54.900200 -22.288800 10.480000
-4.705380 1.461090 55.367300 -22.288800 6.490000
-5.064310 1.472410 55.768200 -22.288800 11.260000
-29.187600 -21.159700 43.994800 -10.478400 7.090000
-29.749500 -21.320000 44.100200 -10.478400 6.990000
25.640900 2.569160 51.189300 -21.400800 5.560000
25.829900 2.766860 51.566800 -21.400800 7.590000
23.021300 1.734200 54.331800 -20.690400 6.900000
23.189300 1.746860 54.728400 -20.601600 6.520000
23.357400 1.759520 55.125000 -20.601600 8.150000
15.612000 1.810150 59.580600 -11.632800 7.040000
15.721200 1.822810 59.997300 -11.632800 6.120000
16.179300 1.835470 60.321400 -11.632800 10.560000
16.761000 1.507750 60.618800 -11.632800 11.940000
-2.004570 2.112550 65.000700 -12.076800 6.340000
-2.017850 2.126540 65.431200 -12.076800 8.210000
-2.031120 2.140530 65.861600 -12.076800 5.110000
6.886980 2.564720 65.950400 -11.988000 5.920000
18.051000 1.180000 63.845400 -11.632800 6.530000
15.546500 2.374960 64.911500 -11.988000 6.050000
18.168200 1.187670 64.260000 -11.632800 9.190000
18.285400 1.195330 64.674500 -11.632800 8.840000
18.903800 1.202990 64.945400 -11.632800 5.740000
20.909000 1.642010 65.223900 -11.188800 5.780000
-2.110050 2.859710 68.420900 -12.076800 14.960000
-2.123320 2.877700 68.851200 -12.076800 7.860000
-2.136590 2.895680 69.281500 -12.076800 13.510000
-11.843600 2.714610 69.177700 -11.899200 9.340000
-31.648700 0.382470 63.183300 -10.922400 11.860000
-35.829400 1.256630 60.898200 -10.478400 10.570000
-11.917700 2.512860 69.610100 -11.899200 6.650000
-31.841600 0.384802 63.568500 -10.922400 6.430000
-2.149670 15.904400 69.705700 -12.076800 11.630000
-2.162620 16.000300 70.125600 -12.076800 11.950000
-10.470400 0.626673 72.933500 -11.988000 7.530000
-10.531600 0.630338 73.360000 -11.988000 6.530000
-10.592800 0.634003 73.786500 -11.988000 12.850000
-10.224900 0.637667 74.273400 -11.988000 15.060000
-2.389030 2.997730 77.467200 -12.076800 8.640000
-2.402300 3.014380 77.897600 -12.076800 14.860000
-2.415580 3.031030 78.328000 -12.076800 10.720000
-2.429130 2.803980 78.767400 -12.076800 8.920000
-2.496000 2.379780 80.935800 -12.076800 10.850000
-2.509280 2.392440 81.366300 -12.076800 6.420000
-8.632990 2.700150 82.670300 -21.400800 13.360000
-2.588690 2.728130 83.941300 -12.076800 8.230000
-2.601960 2.742120 84.371800 -12.076800 16.310000
6.535670 0.984476 84.629600 -11.988000 19.470000
-6.501510 1.762970 84.187300 -20.956800 18.190000
6.568840 0.989474 85.059200 -12.076800 11.230000
6.602020 0.994471 85.488800 -11.988000 9.280000
6.635190 0.999469 85.918400 -11.988000 5.670000
6.169320 0.736616 86.387800 -11.988000 5.950000
6.701980 0.201897 86.783200 -11.988000 6.770000
-2.696270 0.473423 87.429900 -12.076800 5.210000
-2.709410 1.019460 87.855900 -12.076800 6.300000
25.637100 2.979960 88.078000 -11.544000 5.330000
26.273300 2.423820 88.357200 -11.544000 9.870000
27.081000 2.220320 88.569200 -11.544000 11.350000
-2.330810 1.655070 93.030500 -12.076800 9.910000
21.252100 0.795252 91.054700 -11.721600 6.900000
-10.292700 2.469120 93.338000 -11.988000 5.730000
21.349400 1.089420 91.471500 -11.721600 6.930000
-10.339100 2.772190 93.758000 -11.988000 6.900000
25.147800 0.802581 90.951100 -11.632800 6.150000
-10.386300 2.784850 94.186100 -11.988000 9.010000
26.491800 1.099420 91.014500 -11.544000 8.570000
-2.934130 2.797510 95.142600 -11.988000 6.960000
26.612200 1.104410 91.428200 -11.544000 6.850000
26.733400 0.813576 91.844800 -11.544000 6.580000
-2.417350 1.119400 96.484800 -12.076800 6.700000
-2.428140 1.124400 96.915600 -12.076800 8.380000
22.132800 1.129400 94.828200 -11.721600 12.920000
22.229900 1.436880 95.243900 -11.721600 7.290000
21.591800 0.531727 95.841700 -11.721600 14.250000
21.686500 0.534059 96.262000 -11.721600 10.020000
30.122400 0.534059 93.964500 -11.455200 8.110000
22.523600 1.455870 96.502700 -11.721600 5.020000
29.525700 0.536391 94.605200 -11.455200 7.690000
-2.492520 2.077790 99.485000 -12.076800 6.770000
22.621600 1.462200 96.922200 -11.721600 5.590000
-2.503460 1.777670 99.921600 -12.076800 9.570000
21.968600 1.468530 97.514000 -11.721600 8.350000
-2.514100 2.095780 100.346000 -12.076800 6.540000
22.063300 1.474860 97.934300 -11.721600 6.040000
-2.568050 2.140750 102.500000 -12.076800 6.070000
-2.578840 2.149750 102.930000 -12.076800 5.930000
-2.589450 2.478500 103.354000 -12.076800 8.910000
-2.643740 1.877280 105.521000 -12.076800 8.000000
-2.654370 2.212710 105.945000 -12.076800 15.240000
-2.665160 2.221710 106.376000 -12.076800 5.750000
-2.719270 1.930910 108.536000 -12.076800 6.240000
-2.730060 1.938580 108.966000 -12.076800 12.470000
-2.740690 2.284670 109.390000 -12.076800 12.570000
-2.207920 2.392610 114.573000 -12.076800 8.990000
-2.216220 2.401600 115.004000 -12.076800 5.130000
-2.224520 2.410600 115.435000 -12.076800 7.760000
-2.232820 2.419590 115.865000 -12.076800 7.380000
-12.124900 2.798640 116.109000 -11.988000 7.610000
-12.169600 2.808970 116.537000 -11.988000 6.140000
-12.215200 2.455570 116.974000 -11.988000 8.330000
6.819590 2.464570 117.844000 -11.988000 7.060000
6.844480 2.473560 118.274000 -12.076800 9.010000
-10.755500 0.643669 118.439000 -11.988000 9.570000
-10.793900 1.384260 118.862000 -11.988000 5.660000
-23.082000 0.646001 117.104000 -11.721600 7.020000
5.306700 1.389260 119.665000 -12.076800 12.140000
-3.851620 1.449230 124.893000 -12.076800 11.030000
33.446200 -12.416000 124.698000 -11.544000 7.640000
-2.515190 2.321700 130.518000 -12.076800 13.500000
-2.523490 2.329360 130.949000 -12.076800 8.500000
-3.291180 2.337020 131.363000 -12.076800 11.100000
-22.995000 3.160090 129.796000 -11.899200 7.080000
-23.073100 2.352340 130.237000 -11.899200 8.220000
-33.530700 0.715965 127.964000 -11.721600 8.780000
-22.395800 0.718297 130.812000 -11.721600 6.730000
-2.573140 2.788380 133.525000 -12.076800 6.540000
-2.581440 2.797370 133.956000 -12.076800 7.460000
-1.976770 0.711932 4.248790 -11.011200 0.790000
-2.192130 0.776653 4.618280 -11.011200 3.360000
-2.374810 0.841374 5.003140 -11.011200 1.640000
-1.983210 0.723781 7.014490 -11.632800 0.510000
-2.099870 0.766357 7.427110 -11.632800 1.760000
-2.217200 0.783732 7.842090 -11.632800 6.280000
-2.398150 0.798446 8.239010 -11.721600 4.960000
-2.125330 1.930070 8.581400 -11.632800 7.070000
-1.126430 1.692790 9.699870 -11.810400 3.910000
-2.274440 1.692790 9.496490 -11.632800 4.800000
-2.105180 1.766390 9.969790 -11.721600 6.010000
-2.140080 1.618030 10.433100 -11.721600 2.110000
-2.159110 1.747470 11.297900 -11.810400 3.800000
-2.171310 1.812190 11.729000 -11.899200 5.030000
-2.348480 0.809058 12.686100 -11.899200 8.350000
-2.148390 0.836027 13.157500 -11.988000 7.580000
-2.139550 0.820430 13.597100 -11.988000 10.410000
-2.206410 0.846069 14.022000 -12.076800 11.360000
-2.162250 0.826473 14.466600 -11.899200 8.760000
-2.225850 0.850781 14.892100 -11.899200 9.350000
-2.099610 1.902230 15.251500 -11.988000 9.930000
-2.158740 1.906120 15.681100 -11.988000 8.370000
-10.539300 0.341801 12.526800 -9.590400 9.040000
-2.092110 2.007910 16.115400 -11.988000 6.780000
-10.817800 0.246865 12.857900 -9.590400 7.220000
-2.062230 1.155500 16.638000 -11.988000 8.470000
-10.994400 0.039980 13.274100 -9.590400 6.910000
-2.114170 1.291460 17.057000 -11.988000 8.400000
-2.268050 1.323750 17.470600 -11.988000 8.390000
-2.222190 1.076810 17.928500 -12.076800 5.780000
-2.003450 1.975560 19.185300 -11.988000 5.940000
-2.161310 2.019460 19.599400 -11.988000 5.890000
-9.998450 0.297504 17.609600 -10.656000 9.620000
-2.207580 2.125660 20.019100 -11.988000 9.480000
-10.349500 0.303834 17.905000 -10.656000 5.250000
-2.255280 2.107260 20.451600 -11.988000 13.340000
-10.565100 0.310164 18.278100 -10.656000 7.480000
-10.781200 0.249867 18.651800 -10.656000 15.630000
-11.143100 0.254864 18.939600 -10.567200 13.490000
9.880160 -0.578317 22.007400 -11.011200 5.280000
10.056600 -0.588644 22.400400 -11.011200 7.750000
9.747080 -0.656923 23.003800 -11.100000 9.580000
10.057300 0.482729 25.210300 -11.188800 5.720000
9.869990 -0.575665 25.744400 -11.277600 16.140000
10.025300 -0.411442 26.149600 -11.277600 18.690000
10.177700 -0.681588 26.547100 -11.277600 19.590000
9.913870 -0.848113 27.101500 -11.366400 13.270000
10.093400 -0.551690 29.331900 -11.455200 17.290000
10.232900 -0.656618 29.737500 -11.455200 6.690000
9.499060 -0.369803 30.436600 -11.544000 5.510000
13.224600 -12.116600 28.424400 -22.910400 16.620000
9.952490 -0.500061 32.549900 -11.544000 13.370000
-10.519600 0.906101 32.815200 -11.544000 18.160000
-10.651100 0.917427 33.225400 -11.632800 11.350000
-2.240810 2.211430 35.193300 -12.076800 16.930000
-10.782600 0.928753 33.635500 -11.632800 9.620000
-2.267690 2.348780 35.615400 -12.076800 6.990000
-2.295010 2.377080 36.044500 -12.076800 9.150000
-27.646800 0.538040 24.018100 -8.258400 15.210000
-3.307150 2.066180 36.418300 -11.810400 12.220000
-27.972000 0.544370 24.300600 -8.258400 7.640000
7.643880 2.090490 36.200200 -11.810400 8.460000
-28.297300 0.550700 24.583200 -8.258400 16.060000
7.729910 2.346270 36.607600 -11.810400 9.540000
-2.187220 2.139110 37.795600 -12.076800 8.330000
-2.212080 2.163410 38.225100 -12.076800 12.310000
-28.307600 2.725790 27.618800 -8.791200 9.840000
-2.285800 2.481110 39.499000 -12.076800 10.390000
6.687450 -1.042020 39.060800 -11.899200 13.510000
8.049670 -1.053340 39.242800 -11.810400 12.790000
8.136230 -1.064670 39.664700 -11.810400 7.360000
